847
-0.098151	-0.660494	0.024013 0.123775	0.000000	-0.992310
-0.116831	-0.660494	0.022213 -0.123774	0.000000	-0.992311
-0.134293	-0.660494	0.028473 -0.638637	0.000000	-0.769508
-0.143759	-0.660494	0.044645 -0.978225	0.000000	-0.207548
-0.141694	-0.660494	0.063090 -0.955202	0.000000	0.295955
-0.132889	-0.660494	0.079621 -0.795957	0.000000	0.605353
-0.119434	-0.660494	0.092405 -0.540800	0.000000	0.841151
-0.102196	-0.660494	0.099349 -0.227083	0.000000	0.973876
-0.083588	-0.660494	0.100751 0.165702	0.000000	0.986176
-0.066599	-0.660494	0.093405 0.659547	0.000000	0.751663
-0.057088	-0.660494	0.077483 0.920709	0.000000	0.390251
-0.056383	-0.648148	0.077643 0.998820	0.000000	-0.048568
-0.058852	-0.648148	0.058839 0.977651	0.000000	-0.210236
-0.064218	-0.648148	0.041058 0.865011	0.000000	-0.501753
-0.076949	-0.648148	0.027614 0.481562	0.000000	-0.876412
-0.095352	-0.648148	0.024032 0.095973	0.000000	-0.995384
-0.114175	-0.648148	0.024032 -0.134926	0.000000	-0.990856
-0.131990	-0.648148	0.028976 -0.579457	0.000000	-0.815003
-0.142568	-0.648148	0.044263 -0.970506	0.000000	-0.241078
-0.140382	-0.648148	0.062644 -0.956184	0.000000	0.292767
-0.131911	-0.648148	0.079081 -0.815292	0.000000	0.579050
-0.119163	-0.648148	0.092513 -0.569301	0.000000	0.822129
-0.102104	-0.648148	0.099722 -0.249784	0.000000	0.968301
-0.083588	-0.648148	0.101675 0.151172	0.000000	0.988507
-0.066582	-0.648148	0.094312 0.645648	0.000000	0.763635
-0.056417	-0.648148	0.078649 0.953989	0.000000	0.299840
-0.055459	-0.635802	0.077643 0.978898	0.000000	0.204350
-0.056383	-0.635802	0.059156 0.969439	0.000000	-0.245331
-0.064387	-0.635802	0.042407 0.804386	0.000000	-0.594107
-0.078021	-0.635802	0.029851 0.461154	0.000000	-0.887320
-0.096260	-0.635802	0.025881 0.106965	0.000000	-0.994263
-0.114778	-0.635802	0.025881 -0.167334	0.000000	-0.985900
-0.132296	-0.635802	0.032004 -0.641120	0.000000	-0.767440
-0.141421	-0.635802	0.048121 -0.989208	0.000000	-0.146518
-0.137362	-0.635802	0.066184 -0.930473	0.000000	0.366361
-0.128014	-0.635802	0.082168 -0.785561	0.000000	0.618784
-0.114680	-0.635802	0.094984 -0.478213	0.000000	0.878244
-0.096427	-0.635802	0.099290 -0.183077	0.000000	0.983099
-0.078091	-0.635802	0.101809 0.215217	0.000000	0.976566
-0.062507	-0.635802	0.091812 0.744516	0.000000	0.667604
-0.054535	-0.623457	0.065627 0.995085	0.000000	-0.099027
-0.060568	-0.623457	0.048065 0.849308	0.000000	-0.527898
-0.073631	-0.623457	0.034895 0.544452	0.000000	-0.838792
-0.091044	-0.623457	0.028300 0.219266	0.000000	-0.975665
-0.109672	-0.623457	0.026805 -0.098280	0.000000	-0.995159
-0.127556	-0.623457	0.031889 -0.541061	0.000000	-0.840983
-0.139573	-0.623457	0.046030 -0.961680	0.000000	-0.274173
-0.136827	-0.623457	0.064336 -0.949658	0.000000	0.313288
-0.128068	-0.623457	0.080819 -0.806032	0.000000	0.591872
-0.114998	-0.623457	0.094075 -0.587195	0.000000	0.809445
-0.098407	-0.623457	0.102352 -0.280882	0.000000	0.959742
-0.079935	-0.623457	0.104330 0.256425	0.000000	0.966564
-0.064547	-0.623457	0.093220 0.757850	0.000000	0.652428
-0.056004	-0.623457	0.076653 0.954056	0.000000	0.299627
-0.053610	-0.611111	0.078567 0.990617	0.000000	0.136667
-0.055211	-0.611111	0.060099 0.961105	0.000000	-0.276182
-0.063639	-0.611111	0.043637 0.749684	0.000000	-0.661796
-0.079103	-0.611111	0.033113 0.403896	0.000000	-0.914805
-0.097348	-0.611111	0.028765 0.098362	0.000000	-0.995151
-0.115927	-0.611111	0.029451 -0.259941	0.000000	-0.965625
-0.132293	-0.611111	0.038159 -0.772333	0.000000	-0.635218
-0.137690	-0.611111	0.055936 -0.999422	0.000000	0.033981
-0.131056	-0.611111	0.073415 -0.882445	0.000000	0.470416
-0.120275	-0.611111	0.088620 -0.724996	0.000000	0.688753
-0.105690	-0.611111	0.100129 -0.426656	0.000000	0.904414
-0.087401	-0.611111	0.104094 -0.021336	0.000000	0.999772
-0.069180	-0.611111	0.100951 0.484955	0.000000	0.874539
-0.056843	-0.611111	0.087138 0.855210	0.000000	0.518282
-0.052686	-0.598765	0.077643 0.999685	0.000000	0.025113
-0.055409	-0.598765	0.059271 0.947878	0.000000	-0.318632
-0.064333	-0.598765	0.042992 0.722225	0.000000	-0.691658
-0.080181	-0.598765	0.033391 0.360637	0.000000	-0.932706
-0.098543	-0.598765	0.029798 0.046984	0.000000	-0.998896
-0.117052	-0.598765	0.031641 -0.319402	0.000000	-0.947619
-0.132863	-0.598765	0.041356 -0.841789	0.000000	-0.539806
-0.135109	-0.598765	0.059884 -0.990750	0.000000	0.135697
-0.127993	-0.598765	0.077055 -0.864084	0.000000	0.503347
-0.116540	-0.598765	0.091748 -0.680216	0.000000	0.733011
-0.100988	-0.598765	0.102103 -0.373077	0.000000	0.927800
-0.082584	-0.598765	0.105400 0.059379	0.000000	0.998236
-0.064888	-0.598765	0.100002 0.584204	0.000000	0.811607
-0.054141	-0.598765	0.084918 0.917836	0.000000	0.396959
-0.050838	-0.586420	0.073946 0.992414	0.000000	-0.122942
-0.055430	-0.586420	0.055871 0.891664	0.000000	-0.452697
-0.067380	-0.586420	0.041414 0.619116	0.000000	-0.785299
-0.083989	-0.586420	0.033284 0.298254	0.000000	-0.954486
-0.102327	-0.586420	0.030503 -0.040348	0.000000	-0.999186
-0.120405	-0.586420	0.034759 -0.462405	0.000000	-0.886669
-0.134181	-0.586420	0.047092 -0.938685	0.000000	-0.344777
-0.131658	-0.586420	0.065444 -0.957387	0.000000	0.288807
-0.123610	-0.586420	0.082134 -0.825422	0.000000	0.564516
-0.110970	-0.586420	0.095692 -0.618663	0.000000	0.785656
-0.094822	-0.586420	0.104802 -0.332051	0.000000	0.943261
-0.076504	-0.586420	0.107820 0.306137	0.000000	0.951987
-0.062854	-0.586420	0.094165 0.737531	0.000000	0.675313
-0.050851	-0.586420	0.079844 0.939395	0.000000	0.342836
-0.049913	-0.574074	0.076718 0.999902	0.000000	-0.013993
-0.053561	-0.574074	0.058574 0.914931	0.000000	-0.403610
-0.064512	-0.574074	0.043633 0.649504	0.000000	-0.760358
-0.080979	-0.574074	0.035153 0.329107	0.000000	-0.944292
-0.099151	-0.574074	0.031561 0.002271	0.000000	-0.999997
-0.117332	-0.574074	0.035069 -0.404822	0.000000	-0.914395
-0.132144	-0.574074	0.046166 -0.910575	0.000000	-0.413344
-0.130731	-0.574074	0.064821 -0.964081	0.000000	0.265609
-0.122450	-0.574074	0.081448 -0.835691	0.000000	0.549200
-0.110456	-0.574074	0.095667 -0.667767	0.000000	0.744370
-0.095059	-0.574074	0.106028 -0.343289	0.000000	0.939230
-0.076530	-0.574074	0.108047 0.233148	0.000000	0.972441
-0.060686	-0.574074	0.097686 0.713425	0.000000	0.700732
-0.050821	-0.574074	0.081992 0.933839	0.000000	0.357695
-0.048989	-0.561728	0.077643 0.999017	0.000000	-0.044316
-0.052634	-0.561728	0.059452 0.915367	0.000000	-0.402621
-0.063615	-0.561728	0.044423 0.641535	0.000000	-0.767093
-0.080371	-0.561728	0.036263 0.326215	0.000000	-0.945296
-0.098556	-0.561728	0.032360 -0.015089	0.000000	-0.999886
-0.116518	-0.561728	0.036786 -0.438525	0.000000	-0.898719
-0.131076	-0.561728	0.048233 -0.927396	0.000000	-0.374080
-0.128536	-0.561728	0.066570 -0.954870	0.000000	0.297024
-0.120218	-0.561728	0.083130 -0.813126	0.000000	0.582088
-0.106831	-0.561728	0.096740 -0.642398	0.000000	0.766371
-0.091563	-0.561728	0.107221 -0.323392	0.000000	0.946265
-0.073031	-0.561728	0.108279 0.244593	0.000000	0.969626
-0.057133	-0.561728	0.098505 0.749294	0.000000	0.662238
-0.049423	-0.561728	0.081608 0.964145	0.000000	0.265375
-0.048065	-0.549383	0.071173 0.985067	0.000000	-0.172170
-0.055407	-0.549383	0.054121 0.826846	0.000000	-0.562429
-0.068524	-0.549383	0.041073 0.519971	0.000000	-0.854184
-0.086355	-0.549383	0.035344 0.209723	0.000000	-0.977761
-0.104793	-0.549383	0.033276 -0.169989	0.000000	-0.985446
-0.121579	-0.549383	0.041454 -0.712052	0.000000	-0.702127
-0.129515	-0.549383	0.058341 -0.998027	0.000000	-0.062785
-0.123799	-0.549383	0.075964 -0.897705	0.000000	0.440598
-0.113276	-0.549383	0.091382 -0.754820	0.000000	0.655932
-0.099406	-0.549383	0.104017 -0.479793	0.000000	0.877382
-0.081509	-0.549383	0.108817 -0.019253	0.000000	0.999815
-0.063303	-0.549383	0.104678 0.474076	0.000000	0.880484
-0.049928	-0.549383	0.091855 0.900530	0.000000	0.434795
-0.048191	-0.549383	0.073265 0.997049	0.000000	0.076772
-0.046216	-0.537037	0.079491 0.999626	0.000000	0.027331
-0.050236	-0.537037	0.061399 0.906672	0.000000	-0.421836
-0.061523	-0.537037	0.046622 0.641532	0.000000	-0.767097
-0.077978	-0.537037	0.038170 0.199531	0.000000	-0.979891
-0.096517	-0.537037	0.039521 -0.128908	0.000000	-0.991656
-0.115190	-0.537037	0.043031 -0.460852	0.000000	-0.887477
-0.128480	-0.537037	0.055973 -0.969260	0.000000	-0.246041
-0.122986	-0.537037	0.073641 -0.915884	0.000000	0.401443
-0.113576	-0.537037	0.089899 -0.800862	0.000000	0.598849
-0.100751	-0.537037	0.103408 -0.549991	0.000000	0.835171
-0.083343	-0.537037	0.109828 -0.138058	0.000000	0.990424
-0.064846	-0.537037	0.108414 0.387539	0.000000	0.921853
-0.050896	-0.537037	0.096189 0.846058	0.000000	0.533090
-0.045292	-0.524691	0.082264 0.999988	0.000000	0.004938
-0.048302	-0.524691	0.063966 0.922897	0.000000	-0.385046
-0.059184	-0.524691	0.048962 0.671958	0.000000	-0.740589
-0.075176	-0.524691	0.039584 0.374182	0.000000	-0.927355
-0.093258	-0.524691	0.035223 0.015754	0.000000	-0.999876
-0.111447	-0.524691	0.039007 -0.408870	0.000000	-0.912593
-0.126363	-0.524691	0.050051 -0.924902	0.000000	-0.380205
-0.123512	-0.524691	0.068486 -0.954944	0.000000	0.296786
-0.115425	-0.524691	0.085262 -0.853246	0.000000	0.521509
-0.104240	-0.524691	0.100035 -0.678168	0.000000	0.734907
-0.088619	-0.524691	0.109998 -0.320555	0.000000	0.947230
-0.070143	-0.524691	0.111569 0.202935	0.000000	0.979192
-0.053796	-0.524691	0.102775 0.726583	0.000000	0.687078
-0.045943	-0.524691	0.085993 0.953759	0.000000	0.300573
-0.044367	-0.512346	0.083189 0.999192	0.000000	0.040193
-0.047306	-0.512346	0.064833 0.922642	0.000000	-0.385657
-0.058317	-0.512346	0.049828 0.686091	0.000000	-0.727516
-0.073934	-0.512346	0.039718 0.377158	0.000000	-0.926149
-0.092073	-0.512346	0.036061 -0.018533	0.000000	-0.999828
-0.110053	-0.512346	0.040386 -0.431330	0.000000	-0.902194
-0.124728	-0.512346	0.051679 -0.925195	0.000000	-0.379492
-0.122200	-0.512346	0.070095 -0.953963	0.000000	0.299924
-0.113740	-0.512346	0.086634 -0.848596	0.000000	0.529042
-0.102638	-0.512346	0.101480 -0.671177	0.000000	0.741297
-0.086733	-0.512346	0.111076 -0.290931	0.000000	0.956744
-0.068210	-0.512346	0.111957 0.230106	0.000000	0.973165
-0.052028	-0.512346	0.102866 0.748835	0.000000	0.662756
-0.044993	-0.512346	0.085754 0.950917	0.000000	0.309447
-0.042519	-0.500000	0.084113 0.997614	0.000000	0.069038
-0.045912	-0.500000	0.065826 0.914709	0.000000	-0.404113
-0.057160	-0.500000	0.050985 0.679682	0.000000	-0.733507
-0.072836	-0.500000	0.040884 0.394167	0.000000	-0.919039
-0.091064	-0.500000	0.036464 -0.010810	0.000000	-0.999942
-0.109151	-0.500000	0.041266 -0.474991	0.000000	-0.879991
-0.122934	-0.500000	0.053611 -0.947928	0.000000	-0.318483
-0.119339	-0.500000	0.072090 -0.960190	0.000000	0.279349
-0.112468	-0.500000	0.089593 -0.804140	0.000000	0.594441
-0.097617	-0.500000	0.101401 -0.509295	0.000000	0.860592
-0.080211	-0.500000	0.108698 -0.280524	0.000000	0.959847
-0.061980	-0.500000	0.111859 0.260334	0.000000	0.965518
-0.047796	-0.500000	0.099951 0.827018	0.000000	0.562176
-0.041594	-0.487654	0.084113 0.999120	0.000000	0.041953
-0.045618	-0.487654	0.066055 0.913138	0.000000	-0.407651
-0.056402	-0.487654	0.050965 0.681728	0.000000	-0.731606
-0.072171	-0.487654	0.041298 0.359115	0.000000	-0.933293
-0.090379	-0.487654	0.037897 -0.030704	0.000000	-0.999528
-0.108401	-0.487654	0.042424 -0.509368	0.000000	-0.860549
-0.121086	-0.487654	0.056096 -0.959635	0.000000	-0.281249
-0.117803	-0.487654	0.074367 -0.946780	0.000000	0.321880
-0.109300	-0.487654	0.090794 -0.843553	0.000000	0.537045
-0.097987	-0.487654	0.105484 -0.647079	0.000000	0.762423
-0.081694	-0.487654	0.114236 -0.160864	0.000000	0.986976
-0.062935	-0.487654	0.111020 0.346749	0.000000	0.937958
-0.047042	-0.487654	0.101527 0.785203	0.000000	0.619238
-0.040670	-0.475309	0.089659 0.999596	0.000000	0.028415
-0.041863	-0.475309	0.071163 0.951290	0.000000	-0.308296
-0.051747	-0.475309	0.055481 0.748201	0.000000	-0.663472
-0.066130	-0.475309	0.043795 0.445374	0.000000	-0.895345
-0.084160	-0.475309	0.039366 0.078516	0.000000	-0.996913
-0.102782	-0.475309	0.040928 -0.335676	0.000000	-0.941977
-0.118084	-0.475309	0.051418 -0.889726	0.000000	-0.456495
-0.117679	-0.475309	0.070048 -0.977118	0.000000	0.212697
-0.110341	-0.475309	0.087073 -0.882339	0.000000	0.470614
-0.100291	-0.475309	0.102648 -0.729117	0.000000	0.684389
-0.085343	-0.475309	0.113692 -0.351667	0.000000	0.936125
-0.066906	-0.475309	0.115214 0.176017	0.000000	0.984387
-0.050070	-0.475309	0.107365 0.676885	0.000000	0.736089
-0.040870	-0.475309	0.091298 0.949037	0.000000	0.315165
-0.038821	-0.462963	0.088735 0.992960	0.000000	0.118454
-0.041591	-0.462963	0.070360 0.936354	0.000000	-0.351058
-0.051536	-0.462963	0.054770 0.723686	0.000000	-0.690129
-0.066662	-0.462963	0.044079 0.421149	0.000000	-0.906991
-0.084598	-0.462963	0.039419 0.061815	0.000000	-0.998088
-0.103144	-0.462963	0.041853 -0.455817	0.000000	-0.890073
-0.115987	-0.462963	0.055510 -0.936176	0.000000	-0.351532
-0.115305	-0.462963	0.074300 -0.955432	0.000000	0.295212
-0.105002	-0.462963	0.090620 -0.846189	0.000000	0.532883
-0.095128	-0.462963	0.106338 -0.694652	0.000000	0.719346
-0.078993	-0.462963	0.115705 -0.226777	0.000000	0.973947
-0.060379	-0.462963	0.114429 0.326339	0.000000	0.945253
-0.045055	-0.462963	0.104027 0.777109	0.000000	0.629366
-0.036973	-0.450617	0.085962 0.999425	0.000000	0.033915
-0.041381	-0.450617	0.067985 0.898643	0.000000	-0.438681
-0.052835	-0.450617	0.053462 0.662062	0.000000	-0.749449
-0.068684	-0.450617	0.043872 0.372994	0.000000	-0.927834
-0.086876	-0.450617	0.039797 -0.022839	0.000000	-0.999739
-0.104982	-0.450617	0.044731 -0.578161	0.000000	-0.815923
-0.115540	-0.450617	0.060037 -0.977263	0.000000	-0.212030
-0.112282	-0.450617	0.078295 -0.945262	0.000000	0.326311
-0.103447	-0.450617	0.094929 -0.836609	0.000000	0.547800
-0.091870	-0.450617	0.109506 -0.611632	0.000000	0.791142
-0.074916	-0.450617	0.117009 -0.139814	0.000000	0.990178
-0.056475	-0.450617	0.114483 0.405603	0.000000	0.914049
-0.042245	-0.450617	0.102518 0.830961	0.000000	0.556331
-0.036048	-0.438272	0.086886 0.995476	0.000000	-0.095017
-0.039904	-0.438272	0.068746 0.904648	0.000000	-0.426159
-0.051470	-0.438272	0.054179 0.663504	0.000000	-0.748173
-0.067240	-0.438272	0.044483 0.393114	0.000000	-0.919490
-0.085281	-0.438272	0.039746 -0.006605	0.000000	-0.999978
-0.103219	-0.438272	0.044710 -0.580837	0.000000	-0.814020
-0.113691	-0.438272	0.059976 -0.974251	0.000000	-0.225464
-0.110974	-0.438272	0.078402 -0.960942	0.000000	0.276749
-0.103494	-0.438272	0.095406 -0.860052	0.000000	0.510206
-0.092154	-0.438272	0.110125 -0.611185	0.000000	0.791488
-0.075011	-0.438272	0.117388 -0.150147	0.000000	0.988664
-0.056559	-0.438272	0.115549 0.352114	0.000000	0.935957
-0.041511	-0.438272	0.104799 0.811017	0.000000	0.585023
-0.036053	-0.438272	0.087112 0.987352	0.000000	0.158544
-0.035124	-0.425926	0.090583 0.988362	0.000000	0.152118
-0.037023	-0.425926	0.072139 0.927423	0.000000	-0.374013
-0.048704	-0.425926	0.057215 0.701014	0.000000	-0.713147
-0.063519	-0.425926	0.046024 0.462510	0.000000	-0.886614
-0.081367	-0.425926	0.040214 0.045372	0.000000	-0.998970
-0.099701	-0.425926	0.044390 -0.528626	0.000000	-0.848855
-0.111380	-0.425926	0.058810 -0.956614	0.000000	-0.291359
-0.109722	-0.425926	0.077297 -0.970493	0.000000	0.241128
-0.102542	-0.425926	0.094395 -0.882882	0.000000	0.469595
-0.092320	-0.425926	0.109994 -0.602099	0.000000	0.798421
-0.074068	-0.425926	0.115671 -0.171588	0.000000	0.985169
-0.055575	-0.425926	0.116473 0.318736	0.000000	0.947843
-0.041145	-0.425926	0.104512 0.800100	0.000000	0.599867
-0.033275	-0.413580	0.087810 0.999959	0.000000	-0.009075
-0.037934	-0.413580	0.069883 0.897633	0.000000	-0.440743
-0.049366	-0.413580	0.055111 0.667803	0.000000	-0.744339
-0.065154	-0.413580	0.045424 0.366751	0.000000	-0.930319
-0.083433	-0.413580	0.041705 -0.045760	0.000000	-0.998952
-0.101202	-0.413580	0.047052 -0.633438	0.000000	-0.773793
-0.109994	-0.413580	0.063492 -0.986959	0.000000	-0.160971
-0.106896	-0.413580	0.081791 -0.957037	0.000000	0.289965
-0.099257	-0.413580	0.098866 -0.852546	0.000000	0.522652
-0.087605	-0.413580	0.113297 -0.571026	0.000000	0.820932
-0.070026	-0.413580	0.119200 -0.070217	0.000000	0.997532
-0.051617	-0.413580	0.115785 0.417627	0.000000	0.908619
-0.037214	-0.413580	0.104180 0.844950	0.000000	0.534846
-0.032351	-0.401235	0.094281 0.985373	0.000000	0.170412
-0.034781	-0.401235	0.075911 0.947989	0.000000	-0.318302
-0.043964	-0.401235	0.059736 0.763191	0.000000	-0.646173
-0.058347	-0.401235	0.048056 0.475329	0.000000	-0.879808
-0.076033	-0.401235	0.042418 0.123007	0.000000	-0.992406
-0.094617	-0.401235	0.043571 -0.437237	0.000000	-0.899346
-0.106948	-0.401235	0.057413 -0.932436	0.000000	-0.361334
-0.107164	-0.401235	0.075964 -0.985647	0.000000	0.168821
-0.100771	-0.401235	0.093427 -0.902470	0.000000	0.430753
-0.091241	-0.401235	0.109336 -0.705608	0.000000	0.708602
-0.075332	-0.401235	0.118775 -0.276766	0.000000	0.960937
-0.056745	-0.401235	0.119247 0.238554	0.000000	0.971129
-0.040540	-0.401235	0.110243 0.718727	0.000000	0.695293
-0.030503	-0.388889	0.090583 0.999250	0.000000	0.038724
-0.034436	-0.388889	0.072415 0.913825	0.000000	-0.406107
-0.045292	-0.388889	0.057310 0.703287	0.000000	-0.710906
-0.060427	-0.388889	0.046678 0.416266	0.000000	-0.909243
-0.078737	-0.388889	0.042075 -0.009969	0.000000	-0.999950
-0.096599	-0.388889	0.046946 -0.610547	0.000000	-0.791980
-0.105862	-0.388889	0.062992 -0.977254	0.000000	-0.212070
-0.104078	-0.388889	0.081487 -0.971029	0.000000	0.238961
-0.097053	-0.388889	0.098753 -0.872611	0.000000	0.488416
-0.086077	-0.388889	0.113678 -0.601987	0.000000	0.798506
-0.068603	-0.388889	0.120161 -0.100953	0.000000	0.994891
-0.050264	-0.388889	0.117333 0.380819	0.000000	0.924649
-0.035239	-0.388889	0.106416 0.815861	0.000000	0.578247
-0.028654	-0.376543	0.087810 0.996928	0.000000	-0.078321
-0.033977	-0.376543	0.069968 0.869670	0.000000	-0.493634
-0.046494	-0.376543	0.056331 0.633789	0.000000	-0.773506
-0.062336	-0.376543	0.046733 0.374251	0.000000	-0.927327
-0.080417	-0.376543	0.042643 -0.098806	0.000000	-0.995107
-0.097357	-0.376543	0.050216 -0.725124	0.000000	-0.688618
-0.104096	-0.376543	0.067654 -0.994539	0.000000	-0.104368
-0.101150	-0.376543	0.085947 -0.961115	0.000000	0.276149
-0.093933	-0.376543	0.103020 -0.828230	0.000000	0.560388
-0.080570	-0.376543	0.116266 -0.498860	0.000000	0.866683
-0.062677	-0.376543	0.121095 0.050784	0.000000	0.998710
-0.045052	-0.376543	0.114356 0.498431	0.000000	0.866929
-0.030655	-0.376543	0.102752 0.871393	0.000000	0.490585
-0.027730	-0.364197	0.094280 0.995607	0.000000	0.093625
-0.030109	-0.364197	0.075913 0.937027	0.000000	-0.349256
-0.040412	-0.364197	0.060349 0.729100	0.000000	-0.684407
-0.055174	-0.364197	0.049174 0.425368	0.000000	-0.905020
-0.073463	-0.364197	0.044877 0.033010	0.000000	-0.999455
-0.091803	-0.364197	0.047926 -0.554300	0.000000	-0.832317
-0.101675	-0.364197	0.063654 -0.964961	0.000000	-0.262395
-0.101129	-0.364197	0.082170 -0.981000	0.000000	0.194006
-0.094569	-0.364197	0.099545 -0.879081	0.000000	0.476673
-0.083626	-0.364197	0.114468 -0.606072	0.000000	0.795410
-0.066264	-0.364197	0.121086 -0.108364	0.000000	0.994111
-0.047887	-0.364197	0.118365 0.353497	0.000000	0.935435
-0.032303	-0.364197	0.108252 0.792582	0.000000	0.609766
-0.025881	-0.351852	0.093356 0.998579	0.000000	0.053286
-0.029341	-0.351852	0.075186 0.922267	0.000000	-0.386553
-0.039918	-0.351852	0.059911 0.711442	0.000000	-0.702745
-0.055007	-0.351852	0.049186 0.444514	0.000000	-0.895772
-0.072740	-0.351852	0.043635 0.028006	0.000000	-0.999608
-0.090685	-0.351852	0.048167 -0.610387	0.000000	-0.792103
-0.099671	-0.351852	0.064421 -0.970140	0.000000	-0.242546
-0.099392	-0.351852	0.082976 -0.984455	0.000000	0.175636
-0.093254	-0.351852	0.100436 -0.880755	0.000000	0.473571
-0.082065	-0.351852	0.115196 -0.554325	0.000000	0.832300
-0.064001	-0.351852	0.119865 -0.092713	0.000000	0.995693
-0.045553	-0.351852	0.118623 0.332501	0.000000	0.943103
-0.030315	-0.351852	0.107957 0.809515	0.000000	0.587099
-0.024957	-0.339506	0.099826 0.964938	0.000000	0.262477
-0.025881	-0.339506	0.081340 0.967373	0.000000	-0.253355
-0.034143	-0.339506	0.064761 0.783450	0.000000	-0.621454
-0.048475	-0.339506	0.052886 0.514586	0.000000	-0.857439
-0.065752	-0.339506	0.045802 0.206029	0.000000	-0.978546
-0.084319	-0.339506	0.045321 -0.404016	0.000000	-0.914752
-0.096455	-0.339506	0.059353 -0.917692	0.000000	-0.397294
-0.098385	-0.339506	0.077825 -0.998242	0.000000	0.059263
-0.094293	-0.339506	0.095894 -0.932281	0.000000	0.361734
-0.085106	-0.339506	0.112031 -0.722810	0.000000	0.691047
-0.069396	-0.339506	0.121935 -0.252270	0.000000	0.967657
-0.050811	-0.339506	0.120959 0.233905	0.000000	0.972259
-0.033872	-0.339506	0.113400 0.647796	0.000000	0.761814
-0.023108	-0.327161	0.092432 0.999983	0.000000	-0.005767
-0.026824	-0.327161	0.074140 0.906512	0.000000	-0.422179
-0.038356	-0.327161	0.059622 0.667692	0.000000	-0.744438
-0.054023	-0.327161	0.049741 0.426913	0.000000	-0.904293
-0.071609	-0.327161	0.043924 -0.051770	0.000000	-0.998659
-0.088503	-0.327161	0.051530 -0.708761	0.000000	-0.705449
-0.096074	-0.327161	0.068557 -0.982523	0.000000	-0.186143
-0.095257	-0.327161	0.087152 -0.982685	0.000000	0.185283
-0.089280	-0.327161	0.104669 -0.848145	0.000000	0.529764
-0.076109	-0.327161	0.117776 -0.502441	0.000000	0.864612
-0.058270	-0.327161	0.122711 -0.021424	0.000000	0.999771
-0.040189	-0.327161	0.118534 0.441443	0.000000	0.897289
-0.025847	-0.327161	0.106760 0.859678	0.000000	0.510836
-0.018486	-0.290123	0.097978 0.990503	0.000000	0.137488
-0.020664	-0.290123	0.079533 0.942028	0.000000	-0.335535
-0.030612	-0.290123	0.063904 0.714165	0.000000	-0.699978
-0.046027	-0.290123	0.053652 0.437824	0.000000	-0.899060
-0.063764	-0.290123	0.047785 0.065492	0.000000	-0.997853
-0.081924	-0.290123	0.051247 -0.590791	0.000000	-0.806825
-0.090749	-0.290123	0.067591 -0.965272	0.000000	-0.261246
-0.091373	-0.290123	0.086218 -0.992528	0.000000	0.122014
-0.086287	-0.290123	0.104030 -0.887334	0.000000	0.461128
-0.074635	-0.290123	0.118428 -0.559731	0.000000	0.828675
-0.056935	-0.290123	0.123859 -0.050566	0.000000	0.998721
-0.038755	-0.290123	0.120239 0.385959	0.000000	0.922516
-0.023404	-0.290123	0.109828 0.774988	0.000000	0.631976
-0.017562	-0.277778	0.100751 0.977463	0.000000	0.211109
-0.018390	-0.277778	0.082198 0.951504	0.000000	-0.307637
-0.028593	-0.277778	0.066652 0.759894	0.000000	-0.650046
-0.042550	-0.277778	0.054002 0.523024	0.000000	-0.852318
-0.060172	-0.277778	0.047279 0.120096	0.000000	-0.992762
-0.078567	-0.277778	0.049567 -0.555346	0.000000	-0.831619
-0.087884	-0.277778	0.065954 -0.955916	0.000000	-0.293640
-0.089349	-0.277778	0.084434 -0.998629	0.000000	0.052344
-0.085961	-0.277778	0.102656 -0.915211	0.000000	0.402975
-0.074836	-0.277778	0.117422 -0.595411	0.000000	0.803421
-0.057226	-0.277778	0.123859 -0.100277	0.000000	0.994959
-0.038821	-0.277778	0.121086 0.343300	0.000000	0.939226
-0.022927	-0.277778	0.111312 0.735255	0.000000	0.677791
-0.015713	-0.265432	0.099826 0.986810	0.000000	0.161886
-0.017385	-0.265432	0.081369 0.944321	0.000000	-0.329027
-0.027655	-0.265432	0.065701 0.750530	0.000000	-0.660837
-0.041938	-0.265432	0.053495 0.500217	0.000000	-0.865900
-0.059853	-0.265432	0.047147 0.056290	0.000000	-0.998414
-0.077950	-0.265432	0.051344 -0.599056	0.000000	-0.800707
-0.087041	-0.265432	0.067443 -0.957790	0.000000	-0.287470
-0.088328	-0.265432	0.086036 -0.996157	0.000000	0.087592
-0.083817	-0.265432	0.104115 -0.895599	0.000000	0.444862
-0.072171	-0.265432	0.118590 -0.546681	0.000000	0.837341
-0.054298	-0.265432	0.123412 -0.068709	0.000000	0.997637
-0.035933	-0.265432	0.121086 0.351983	0.000000	0.936006
-0.020501	-0.265432	0.110678 0.767109	0.000000	0.641517
-0.013865	-0.253086	0.094280 0.999664	0.000000	-0.025917
-0.018227	-0.253086	0.076198 0.890090	0.000000	-0.455784
-0.030385	-0.253086	0.062047 0.654105	0.000000	-0.756404
-0.046312	-0.253086	0.051950 0.421050	0.000000	-0.907037
-0.064073	-0.253086	0.046374 -0.117757	0.000000	-0.993042
-0.079939	-0.253086	0.055890 -0.766060	0.000000	-0.642769
-0.086561	-0.253086	0.073184 -0.984646	0.000000	-0.174562
-0.086287	-0.253086	0.091737 -0.983300	0.000000	0.181992
-0.079894	-0.253086	0.109181 -0.835537	0.000000	0.549434
-0.066371	-0.253086	0.122000 -0.356437	0.000000	0.934319
-0.047498	-0.253086	0.121438 0.057922	0.000000	0.998321
-0.028977	-0.253086	0.119839 0.431494	0.000000	0.902116
-0.016142	-0.253086	0.106459 0.889416	0.000000	0.457099
-0.012940	-0.240741	0.102599 0.971996	0.000000	0.234997
-0.013865	-0.240741	0.084113 0.959918	0.000000	-0.280281
-0.023025	-0.240741	0.068048 0.779737	0.000000	-0.626107
-0.036834	-0.240741	0.055542 0.539682	0.000000	-0.841869
-0.054115	-0.240741	0.048150 0.155073	0.000000	-0.987903
-0.072659	-0.240741	0.049876 -0.510425	0.000000	-0.859922
-0.083013	-0.240741	0.065265 -0.939276	0.000000	-0.343162
-0.085037	-0.240741	0.083883 -0.999281	0.000000	0.037919
-0.081631	-0.240741	0.102167 -0.926265	0.000000	0.376874
-0.071303	-0.240741	0.117638 -0.634349	0.000000	0.773047
-0.054181	-0.240741	0.124720 -0.126087	0.000000	0.992019
-0.035805	-0.240741	0.122142 0.302227	0.000000	0.953236
-0.019354	-0.240741	0.113688 0.689325	0.000000	0.724452
-0.011092	-0.228395	0.099826 0.987779	0.000000	0.155860
-0.013214	-0.228395	0.081445 0.937789	0.000000	-0.347207
-0.023633	-0.228395	0.066026 0.741051	0.000000	-0.671448
-0.037897	-0.228395	0.054188 0.504647	0.000000	-0.863326
-0.055174	-0.228395	0.047582 0.064716	0.000000	-0.997904
-0.073197	-0.228395	0.051910 -0.652230	0.000000	-0.758021
-0.080222	-0.228395	0.069223 -0.957246	0.000000	-0.289276
-0.083958	-0.228395	0.087514 -0.999776	0.000000	0.021153
-0.079487	-0.228395	0.105488 -0.894594	0.000000	0.446879
-0.067808	-0.228395	0.119850 -0.546703	0.000000	0.837327
-0.049898	-0.228395	0.124783 -0.032276	0.000000	0.999479
-0.031778	-0.228395	0.121030 0.381110	0.000000	0.924530
-0.016101	-0.228395	0.110809 0.758054	0.000000	0.652191
-0.009243	-0.216049	0.097053 0.998874	0.000000	0.047450
-0.012889	-0.216049	0.078922 0.914898	0.000000	-0.403685
-0.023883	-0.216049	0.063927 0.708123	0.000000	-0.706089
-0.038778	-0.216049	0.052940 0.474185	0.000000	-0.880425
-0.056181	-0.216049	0.046538 -0.025431	0.000000	-0.999677
-0.073221	-0.216049	0.053810 -0.685116	0.000000	-0.728434
-0.081540	-0.216049	0.070405 -0.968453	0.000000	-0.249196
-0.082264	-0.216049	0.088963 -0.994627	0.000000	0.103527
-0.077748	-0.216049	0.106917 -0.870856	0.000000	0.491539
-0.064660	-0.216049	0.120113 -0.498868	0.000000	0.866678
-0.046749	-0.216049	0.124783 -0.016942	0.000000	0.999856
-0.028623	-0.216049	0.120708 0.396879	0.000000	0.917871
-0.013244	-0.216049	0.110297 0.805345	0.000000	0.592806
-0.008319	-0.203704	0.101675 0.978752	0.000000	0.205048
-0.009628	-0.203704	0.083218 0.953335	0.000000	-0.301916
-0.019303	-0.203704	0.067172 0.769624	0.000000	-0.638497
-0.033212	-0.203704	0.054767 0.526040	0.000000	-0.850460
-0.050472	-0.203704	0.047882 0.105780	0.000000	-0.994389
-0.068902	-0.203704	0.051000 -0.549258	0.000000	-0.835653
-0.079007	-0.203704	0.066577 -0.940168	0.000000	-0.340712
-0.081225	-0.203704	0.084991 -0.999565	0.000000	0.029501
-0.077910	-0.203704	0.103325 -0.918090	0.000000	0.396371
-0.066920	-0.203704	0.118203 -0.592425	0.000000	0.805625
-0.049359	-0.203704	0.124287 -0.096527	0.000000	0.995330
-0.030917	-0.203704	0.121685 0.300837	0.000000	0.953675
-0.014420	-0.203704	0.113285 0.702543	0.000000	0.711641
-0.006470	-0.191358	0.100751 0.984098	0.000000	0.177626
-0.008947	-0.191358	0.082339 0.942752	0.000000	-0.333495
-0.018639	-0.191358	0.066398 0.761793	0.000000	-0.647821
-0.032713	-0.191358	0.054359 0.511504	0.000000	-0.859281
-0.050027	-0.191358	0.047718 0.057683	0.000000	-0.998335
-0.067990	-0.191358	0.052320 -0.592171	0.000000	-0.805812
-0.077722	-0.191358	0.068048 -0.947876	0.000000	-0.318640
-0.079491	-0.191358	0.086716 -0.999026	0.000000	0.044137
-0.076119	-0.191358	0.104955 -0.903845	0.000000	0.427860
-0.064147	-0.191358	0.119127 -0.552385	0.000000	0.833589
-0.046293	-0.191358	0.124671 -0.066411	0.000000	0.997792
-0.028025	-0.191358	0.121570 0.356130	0.000000	0.934436
-0.012341	-0.191358	0.111735 0.731151	0.000000	0.682216
-0.005546	-0.179012	0.104448 0.949204	0.000000	0.314662
-0.006315	-0.179012	0.085929 0.968555	0.000000	-0.248801
-0.014601	-0.179012	0.069262 0.808982	0.000000	-0.587833
-0.027855	-0.179012	0.056271 0.538246	0.000000	-0.842788
-0.045284	-0.179012	0.049684 0.173577	0.000000	-0.984820
-0.063778	-0.179012	0.049913 -0.449939	0.000000	-0.893059
-0.075018	-0.179012	0.064705 -0.912668	0.000000	-0.408702
-0.078567	-0.179012	0.082937 -0.999603	0.000000	-0.028185
-0.076043	-0.179012	0.101394 -0.934939	0.000000	0.354808
-0.065710	-0.179012	0.116843 -0.645031	0.000000	0.764156
-0.048818	-0.179012	0.124404 -0.169709	0.000000	0.985494
-0.030387	-0.179012	0.122930 0.271063	0.000000	0.962562
-0.013664	-0.179012	0.114452 0.628125	0.000000	0.778112
-0.003697	-0.166667	0.102599 0.965719	0.000000	0.259590
-0.005021	-0.166667	0.084123 0.956635	0.000000	-0.291290
-0.014211	-0.166667	0.068059 0.772680	0.000000	-0.634795
-0.028192	-0.166667	0.055921 0.537848	0.000000	-0.843041
-0.045151	-0.166667	0.048331 0.126247	0.000000	-0.991999
-0.063443	-0.166667	0.051427 -0.519822	0.000000	-0.854275
-0.074597	-0.166667	0.066247 -0.921114	0.000000	-0.389294
-0.077443	-0.166667	0.084516 -0.999952	0.000000	0.009818
-0.074219	-0.166667	0.102836 -0.914111	0.000000	0.405463
-0.062795	-0.166667	0.117532 -0.605917	0.000000	0.795528
-0.045674	-0.166667	0.124606 -0.118428	0.000000	0.992962
-0.027169	-0.166667	0.121726 0.319257	0.000000	0.947668
-0.010611	-0.166667	0.112777 0.670431	0.000000	0.741972
-0.002773	-0.154321	0.087810 0.992747	0.000000	-0.120226
-0.011009	-0.154321	0.071153 0.817993	0.000000	-0.575228
-0.023935	-0.154321	0.057731 0.593828	0.000000	-0.804592
-0.040599	-0.154321	0.049321 0.256564	0.000000	-0.966527
-0.059075	-0.154321	0.048368 -0.390334	0.000000	-0.920673
-0.071236	-0.154321	0.062310 -0.886861	0.000000	-0.462036
-0.075794	-0.154321	0.080673 -0.996102	0.000000	-0.088212
-0.074560	-0.154321	0.099164 -0.952634	0.000000	0.304119
-0.064841	-0.154321	0.114967 -0.689469	0.000000	0.724315
-0.048628	-0.154321	0.123868 -0.236454	0.000000	0.971643
-0.030130	-0.154321	0.123412 0.202971	0.000000	0.979185
-0.012940	-0.154321	0.116464 0.695970	0.000000	0.718071
-0.005269	-0.154321	0.099070 0.950249	0.000000	0.311492
-0.000924	-0.141975	0.103524 0.959111	0.000000	0.283031
-0.001904	-0.141975	0.085029 0.962433	0.000000	-0.271521
-0.010724	-0.141975	0.068769 0.781608	0.000000	-0.623770
-0.024614	-0.141975	0.056569 0.530365	0.000000	-0.847770
-0.041848	-0.141975	0.049336 0.150017	0.000000	-0.988683
-0.060366	-0.141975	0.051123 -0.471383	0.000000	-0.881929
-0.072078	-0.141975	0.065451 -0.913847	0.000000	-0.406059
-0.074870	-0.141975	0.083800 -0.999998	0.000000	-0.002005
-0.072149	-0.141975	0.102178 -0.922045	0.000000	0.387083
-0.060922	-0.141975	0.117009 -0.580208	0.000000	0.814468
-0.043253	-0.141975	0.122769 -0.138893	0.000000	0.990307
-0.024661	-0.141975	0.122091 0.254087	0.000000	0.967181
-0.008208	-0.141975	0.113580 0.652347	0.000000	0.757920
0.000924	-0.129630	0.101675 0.978164	0.000000	0.207833
-0.001144	-0.129630	0.083209 0.945256	0.000000	-0.326331
-0.010974	-0.129630	0.067295 0.754514	0.000000	-0.656284
-0.025282	-0.129630	0.055430 0.522883	0.000000	-0.852404
-0.042284	-0.129630	0.048078 0.082135	0.000000	-0.996621
-0.060341	-0.129630	0.052567 -0.559738	0.000000	-0.828669
-0.071228	-0.129630	0.067614 -0.926072	0.000000	-0.377348
-0.073945	-0.129630	0.085902 -0.999698	0.000000	0.024592
-0.070326	-0.129630	0.104066 -0.896834	0.000000	0.442368
-0.058070	-0.129630	0.118046 -0.570915	0.000000	0.821009
-0.040699	-0.129630	0.124668 -0.110307	0.000000	0.993897
-0.022389	-0.129630	0.122029 0.308347	0.000000	0.951274
-0.005943	-0.129630	0.113389 0.690472	0.000000	0.723360
0.002773	-0.117284	0.100751 0.981023	0.000000	0.193892
0.000614	-0.117284	0.082313 0.937363	0.000000	-0.348353
-0.009821	-0.117284	0.066898 0.738462	0.000000	-0.674295
-0.024220	-0.117284	0.055113 0.533884	0.000000	-0.845558
-0.040950	-0.117284	0.047227 0.021285	0.000000	-0.999773
-0.058476	-0.117284	0.054594 -0.590647	0.000000	-0.806930
-0.070502	-0.117284	0.068728 -0.916866	0.000000	-0.399194
-0.072669	-0.117284	0.087279 -0.998317	0.000000	0.057992
-0.068402	-0.117284	0.105316 -0.878651	0.000000	0.477464
-0.055584	-0.117284	0.118715 -0.534408	0.000000	0.845227
-0.037879	-0.117284	0.124583 -0.070107	0.000000	0.997540
-0.019684	-0.117284	0.121278 0.341909	0.000000	0.939733
-0.003500	-0.117284	0.112051 0.711121	0.000000	0.703069
0.003697	-0.104938	0.102599 0.960590	0.000000	0.277970
0.002773	-0.104938	0.084113 0.944731	0.000000	-0.327847
-0.008003	-0.104938	0.068958 0.763808	0.000000	-0.645444
-0.021119	-0.104938	0.055834 0.555597	0.000000	-0.831452
-0.038304	-0.104938	0.048721 0.128244	0.000000	-0.991743
-0.056767	-0.104938	0.051234 -0.490945	0.000000	-0.871191
-0.068400	-0.104938	0.065627 -0.906325	0.000000	-0.422582
-0.071963	-0.104938	0.083873 -0.999996	0.000000	0.002990
-0.068292	-0.104938	0.102089 -0.910743	0.000000	0.412973
-0.057041	-0.104938	0.116810 -0.614947	0.000000	0.788568
-0.039970	-0.104938	0.124158 -0.153677	0.000000	0.988121
-0.021549	-0.104938	0.122349 0.262018	0.000000	0.965063
-0.004746	-0.104938	0.114595 0.640322	0.000000	0.768107
0.005546	-0.092593	0.099826 0.986716	0.000000	0.162452
0.003047	-0.092593	0.081429 0.931920	0.000000	-0.362663
-0.007535	-0.092593	0.066199 0.740085	0.000000	-0.672513
-0.021717	-0.092593	0.054185 0.496196	0.000000	-0.868211
-0.039291	-0.092593	0.048055 0.026318	0.000000	-0.999654
-0.057261	-0.092593	0.053280 -0.566773	0.000000	-0.823874
-0.068455	-0.092593	0.068048 -0.931401	0.000000	-0.363993
-0.070248	-0.092593	0.086570 -0.997925	0.000000	0.064388
-0.066091	-0.092593	0.104700 -0.883068	0.000000	0.469246
-0.053317	-0.092593	0.118372 -0.486737	0.000000	0.873549
-0.034969	-0.092593	0.122041 -0.066532	0.000000	0.997784
-0.016353	-0.092593	0.120844 0.289866	0.000000	0.957067
-0.000288	-0.092593	0.111562 0.728877	0.000000	0.684645
0.007395	-0.080247	0.098902 0.987370	0.000000	0.158432
0.004455	-0.080247	0.080580 0.922663	0.000000	-0.385606
-0.006614	-0.080247	0.065483 0.723696	0.000000	-0.690119
-0.020993	-0.080247	0.053851 0.458183	0.000000	-0.888858
-0.038915	-0.080247	0.048857 0.020780	0.000000	-0.999784
-0.056989	-0.080247	0.053093 -0.565266	0.000000	-0.824909
-0.067423	-0.080247	0.068363 -0.939084	0.000000	-0.343688
-0.069324	-0.080247	0.086890 -0.997452	0.000000	0.071343
-0.064829	-0.080247	0.104865 -0.875293	0.000000	0.483594
-0.051959	-0.080247	0.118285 -0.517198	0.000000	0.855866
-0.034022	-0.080247	0.123459 -0.089019	0.000000	0.996030
-0.015600	-0.080247	0.121563 0.307681	0.000000	0.951490
0.000465	-0.080247	0.112302 0.723070	0.000000	0.690774
0.009243	-0.067901	0.095205 0.997969	0.000000	0.063707
0.004317	-0.067901	0.077213 0.888967	0.000000	-0.457971
-0.007395	-0.067901	0.062854 0.673577	0.000000	-0.739117
-0.022767	-0.067901	0.052528 0.428804	0.000000	-0.903397
-0.040506	-0.067901	0.047140 -0.071213	0.000000	-0.997461
-0.057308	-0.067901	0.054997 -0.654153	0.000000	-0.756362
-0.067492	-0.067901	0.070471 -0.950647	0.000000	-0.310273
-0.068400	-0.067901	0.089024 -0.990846	0.000000	0.134996
-0.062587	-0.067901	0.106581 -0.845208	0.000000	0.534437
-0.049202	-0.067901	0.119376 -0.482569	0.000000	0.875858
-0.031223	-0.067901	0.123859 -0.046922	0.000000	0.998899
-0.012943	-0.067901	0.121087 0.353535	0.000000	0.935421
0.002643	-0.067901	0.111048 0.766989	0.000000	0.641660
0.011092	-0.055556	0.096129 0.996256	0.000000	0.086449
0.006193	-0.055556	0.078013 0.896152	0.000000	-0.443747
-0.005185	-0.055556	0.063215 0.682314	0.000000	-0.731059
-0.020635	-0.055556	0.052948 0.437336	0.000000	-0.899298
-0.038233	-0.055556	0.047140 -0.036638	0.000000	-0.999329
-0.055355	-0.055556	0.054219 -0.631905	0.000000	-0.775046
-0.065785	-0.055556	0.069635 -0.941854	0.000000	-0.336023
-0.067467	-0.055556	0.088156 -0.994118	0.000000	0.108305
-0.061814	-0.055556	0.105950 -0.849474	0.000000	0.527630
-0.048416	-0.055556	0.118858 -0.495179	0.000000	0.868791
-0.030298	-0.055556	0.123859 -0.049102	0.000000	0.998794
-0.012053	-0.055556	0.120707 0.342961	0.000000	0.939349
0.003988	-0.055556	0.111328 0.738832	0.000000	0.673890
0.012016	-0.043210	0.099826 0.982265	0.000000	0.187495
0.009240	-0.043210	0.081509 0.936375	0.000000	-0.351000
-0.000775	-0.043210	0.065776 0.726495	0.000000	-0.687172
-0.015824	-0.043210	0.054976 0.419673	0.000000	-0.907675
-0.034147	-0.043210	0.050420 -0.046588	0.000000	-0.998914
-0.051895	-0.043210	0.056637 -0.539432	0.000000	-0.842030
-0.064813	-0.043210	0.070008 -0.908662	0.000000	-0.417533
-0.066551	-0.043210	0.088584 -0.994902	0.000000	0.100843
-0.061156	-0.043210	0.106317 -0.846305	0.000000	0.532699
-0.047492	-0.043210	0.118858 -0.460383	0.000000	0.887720
-0.029001	-0.043210	0.122883 -0.057569	0.000000	0.998341
-0.010538	-0.043210	0.121047 0.318366	0.000000	0.947968
0.005292	-0.043210	0.111365 0.714582	0.000000	0.699552
0.013865	-0.030864	0.097053 0.988922	0.000000	0.148437
0.010803	-0.030864	0.078745 0.915685	0.000000	-0.401896
-0.000581	-0.030864	0.064122 0.690266	0.000000	-0.723556
-0.015832	-0.030864	0.053361 0.460450	0.000000	-0.887686
-0.033275	-0.030864	0.047140 -0.069163	0.000000	-0.997605
-0.049980	-0.030864	0.055858 -0.569588	0.000000	-0.821930
-0.063759	-0.030864	0.068214 -0.891530	0.000000	-0.452962
-0.065627	-0.030864	0.086763 -0.995872	0.000000	0.090772
-0.060460	-0.030864	0.104587 -0.884847	0.000000	0.465882
-0.048634	-0.030864	0.119000 -0.374854	0.000000	0.927084
-0.029370	-0.030864	0.116771 0.144268	0.000000	0.989539
-0.011058	-0.030864	0.113546 0.181234	0.000000	0.983440
0.007395	-0.030864	0.109994 0.604108	0.000000	0.796902
0.015713	-0.018519	0.096129 0.999934	0.000000	0.011524
0.012182	-0.018519	0.077892 0.907267	0.000000	-0.420554
0.000507	-0.018519	0.063360 0.676969	0.000000	-0.736012
-0.014934	-0.018519	0.052948 0.440096	0.000000	-0.897950
-0.032570	-0.018519	0.047140 0.035357	0.000000	-0.999375
-0.050502	-0.018519	0.051669 -0.536614	0.000000	-0.843828
-0.062255	-0.018519	0.066044 -0.917607	0.000000	-0.397488
-0.064702	-0.018519	0.084449 -0.998920	0.000000	0.046468
-0.060562	-0.018519	0.102523 -0.893119	0.000000	0.449821
-0.048502	-0.018519	0.116612 -0.588791	0.000000	0.808285
-0.031263	-0.018519	0.123825 -0.151107	0.000000	0.988517
-0.012569	-0.018519	0.122083 0.254059	0.000000	0.967189
0.004354	-0.018519	0.114509 0.637252	0.000000	0.770656
0.015043	-0.018519	0.099208 0.916296	0.000000	0.400502
0.017562	-0.006173	0.094280 0.998848	0.000000	-0.047993
0.013188	-0.006173	0.076290 0.894236	0.000000	-0.447595
0.001405	-0.006173	0.062004 0.654753	0.000000	-0.755843
-0.014478	-0.006173	0.052340 0.403803	0.000000	-0.914846
-0.032227	-0.006173	0.047145 -0.008967	0.000000	-0.999960
-0.050091	-0.006173	0.052723 -0.556204	0.000000	-0.831046
-0.061963	-0.006173	0.066995 -0.922868	0.000000	-0.385115
-0.063778	-0.006173	0.085687 -0.997398	0.000000	0.072091
-0.059349	-0.006173	0.103701 -0.901536	0.000000	0.432704
-0.048041	-0.006173	0.118457 -0.448115	0.000000	0.893976
-0.029175	-0.006173	0.118691 0.018886	0.000000	0.999822
-0.010278	-0.006173	0.117742 0.164224	0.000000	0.986423
0.007538	-0.006173	0.112623 0.606586	0.000000	0.795018
0.017208	-0.006173	0.096746 0.941157	0.000000	0.337970
0.018486	0.006173	0.098902 0.988554	0.000000	0.150865
0.016686	0.006173	0.080358 0.945642	0.000000	-0.325209
0.006734	0.006173	0.064682 0.723212	0.000000	-0.690626
-0.008464	0.006173	0.054020 0.429198	0.000000	-0.903210
-0.026636	0.006173	0.048884 0.126363	0.000000	-0.991984
-0.045270	0.006173	0.049295 -0.389091	0.000000	-0.921199
-0.058461	0.006173	0.062273 -0.856422	0.000000	-0.516275
-0.063778	0.006173	0.079996 -0.998851	0.000000	-0.047935
-0.060158	0.006173	0.098269 -0.935300	0.000000	0.353857
-0.050846	0.006173	0.114242 -0.692172	0.000000	0.721732
-0.034455	0.006173	0.122901 -0.265435	0.000000	0.964129
-0.015794	0.006173	0.123859 0.148837	0.000000	0.988862
0.001634	0.006173	0.117496 0.504044	0.000000	0.863678
0.015705	0.006173	0.105488 0.806854	0.000000	0.590751
0.020335	0.018519	0.095205 0.998717	0.000000	0.050646
0.016984	0.018519	0.076809 0.912553	0.000000	-0.408959
0.005468	0.018519	0.062046 0.657514	0.000000	-0.753442
-0.010630	0.018519	0.052686 0.394994	0.000000	-0.918684
-0.028417	0.018519	0.047466 0.043403	0.000000	-0.999058
-0.046637	0.018519	0.051133 -0.490407	0.000000	-0.871494
-0.059212	0.018519	0.064785 -0.890977	0.000000	-0.454048
-0.062854	0.018519	0.082911 -0.999855	0.000000	0.017017
-0.058578	0.018519	0.100983 -0.901701	0.000000	0.432361
-0.047170	0.018519	0.115625 -0.628442	0.000000	0.777856
-0.030454	0.018519	0.123704 -0.220232	0.000000	0.975447
-0.011872	0.018519	0.123590 0.207744	0.000000	0.978183
0.005173	0.018519	0.116132 0.568377	0.000000	0.822768
0.018108	0.018519	0.102903 0.863888	0.000000	0.503684
0.022184	0.030864	0.091508 0.998961	0.000000	-0.045573
0.017447	0.030864	0.073617 0.881834	0.000000	-0.471560
0.005116	0.030864	0.059650 0.601695	0.000000	-0.798726
-0.011586	0.030864	0.051711 0.339387	0.000000	-0.940647
-0.029578	0.030864	0.047140 -0.019836	0.000000	-0.999803
-0.047367	0.030864	0.052419 -0.547113	0.000000	-0.837059
-0.059406	0.030864	0.066670 -0.913608	0.000000	-0.406596
-0.061929	0.030864	0.085112 -0.997384	0.000000	0.072287
-0.056777	0.030864	0.102982 -0.871275	0.000000	0.490795
-0.044194	0.030864	0.116617 -0.580518	0.000000	0.814247
-0.027223	0.030864	0.124058 -0.172780	0.000000	0.984960
-0.008707	0.030864	0.122836 0.254546	0.000000	0.967061
0.007952	0.030864	0.114812 0.593849	0.000000	0.804577
0.020535	0.030864	0.101251 0.897025	0.000000	0.441981
0.024032	0.043210	0.092432 0.999471	0.000000	0.032506
0.019559	0.043210	0.074432 0.890354	0.000000	-0.455269
0.007609	0.043210	0.060295 0.620177	0.000000	-0.784462
-0.008991	0.043210	0.051886 0.355852	0.000000	-0.934542
-0.026921	0.043210	0.047140 0.029325	0.000000	-0.999570
-0.045181	0.043210	0.050844 -0.490615	0.000000	-0.871376
-0.057804	0.043210	0.064522 -0.912398	0.000000	-0.409303
-0.059644	0.043210	0.083233 -0.999409	0.000000	0.034370
-0.056507	0.043210	0.101865 -0.911091	0.000000	0.412204
-0.044777	0.043210	0.116283 -0.595725	0.000000	0.803188
-0.027663	0.043210	0.123288 -0.193689	0.000000	0.981063
-0.009124	0.043210	0.123313 0.215594	0.000000	0.976483
0.007747	0.043210	0.115454 0.572968	0.000000	0.819578
0.020865	0.043210	0.102365 0.853788	0.000000	0.520621
0.025881	0.055556	0.093356 0.994217	0.000000	0.107387
0.022020	0.055556	0.075210 0.906050	0.000000	-0.423170
0.010556	0.055556	0.060568 0.644539	0.000000	-0.764571
-0.005879	0.055556	0.051711 0.353090	0.000000	-0.935589
-0.023986	0.055556	0.047520 0.058840	0.000000	-0.998267
-0.042512	0.055556	0.049560 -0.408042	0.000000	-0.912963
-0.056384	0.055556	0.061997 -0.868098	0.000000	-0.496392
-0.060081	0.055556	0.080329 -0.999846	0.000000	-0.017534
-0.057041	0.055556	0.098704 -0.929838	0.000000	0.367969
-0.046755	0.055556	0.114077 -0.670786	0.000000	0.741651
-0.030397	0.055556	0.122791 -0.285046	0.000000	0.958514
-0.011958	0.055556	0.124429 0.137878	0.000000	0.990449
0.005546	0.055556	0.117735 0.495733	0.000000	0.868475
0.020086	0.055556	0.106166 0.788904	0.000000	0.614516
0.027730	0.067901	0.092432 0.993768	0.000000	0.111472
0.023728	0.067901	0.074289 0.891034	0.000000	-0.453937
0.011453	0.067901	0.060442 0.629712	0.000000	-0.776829
-0.004737	0.067901	0.051240 0.360895	0.000000	-0.932606
-0.022933	0.067901	0.047140 0.059897	0.000000	-0.998205
-0.041424	0.067901	0.049028 -0.391393	0.000000	-0.920223
-0.055538	0.067901	0.060978 -0.848509	0.000000	-0.529180
-0.060081	0.067901	0.078993 -0.999008	0.000000	-0.044525
-0.057161	0.067901	0.097326 -0.930220	0.000000	0.367003
-0.046646	0.067901	0.112908 -0.683961	0.000000	0.729519
-0.030584	0.067901	0.122301 -0.249303	0.000000	0.968426
-0.011929	0.067901	0.121830 0.162140	0.000000	0.986768
0.005938	0.067901	0.116294 0.430459	0.000000	0.902610
0.021337	0.067901	0.105993 0.757798	0.000000	0.652489
0.029578	0.080247	0.088735 0.999854	0.000000	0.017105
0.023353	0.080247	0.071214 0.851810	0.000000	-0.523851
0.010428	0.080247	0.057652 0.577309	0.000000	-0.816525
-0.006441	0.080247	0.050090 0.286487	0.000000	-0.958084
-0.024753	0.080247	0.047140 -0.003894	0.000000	-0.999992
-0.043099	0.080247	0.050242 -0.460986	0.000000	-0.887407
-0.056163	0.080247	0.063446 -0.891364	0.000000	-0.453288
-0.059156	0.080247	0.081896 -0.999539	0.000000	0.030350
-0.055049	0.080247	0.100132 -0.904463	0.000000	0.426552
-0.043684	0.080247	0.114782 -0.643943	0.000000	0.765073
-0.027309	0.080247	0.123481 -0.262933	0.000000	0.964814
-0.008772	0.080247	0.124293 0.184014	0.000000	0.982924
0.008460	0.080247	0.116722 0.513837	0.000000	0.857888
0.023060	0.080247	0.105266 0.801786	0.000000	0.597611
0.031427	0.092593	0.089659 0.998603	0.000000	-0.052839
0.026318	0.092593	0.071807 0.865842	0.000000	-0.500317
0.013350	0.092593	0.058412 0.602785	0.000000	-0.797903
-0.003002	0.092593	0.049640 0.284448	0.000000	-0.958691
-0.021606	0.092593	0.048065 0.024652	0.000000	-0.999696
-0.040124	0.092593	0.048716 -0.359624	0.000000	-0.933097
-0.054369	0.092593	0.060728 -0.846727	0.000000	-0.532028
-0.058980	0.092593	0.078654 -0.999690	0.000000	-0.024906
-0.055267	0.092593	0.096787 -0.929028	0.000000	0.370010
-0.045407	0.092593	0.112651 -0.709009	0.000000	0.705199
-0.029740	0.092593	0.122506 -0.335417	0.000000	0.942070
-0.011263	0.092593	0.124783 0.103756	0.000000	0.994603
0.006586	0.092593	0.118659 0.462442	0.000000	0.886649
0.021642	0.092593	0.107659 0.740944	0.000000	0.671567
0.031077	0.092593	0.091660 0.938371	0.000000	0.345630
0.032351	0.104938	0.089659 0.999475	0.000000	-0.032394
0.028076	0.104938	0.071635 0.882819	0.000000	-0.469713
0.015521	0.104938	0.058024 0.596111	0.000000	-0.802902
-0.001309	0.104938	0.049861 0.300146	0.000000	-0.953893
-0.019625	0.104938	0.046941 0.054753	0.000000	-0.998500
-0.038151	0.104938	0.047841 -0.341546	0.000000	-0.939865
-0.052906	0.104938	0.059024 -0.821320	0.000000	-0.570467
-0.058232	0.104938	0.076749 -0.997495	0.000000	-0.070729
-0.055462	0.104938	0.095034 -0.942723	0.000000	0.333576
-0.046077	0.104938	0.111057 -0.707418	0.000000	0.706795
-0.030119	0.104938	0.120423 -0.356081	0.000000	0.934455
-0.011488	0.104938	0.124149 0.044612	0.000000	0.999004
0.006563	0.104938	0.118828 0.427167	0.000000	0.904172
0.021916	0.104938	0.108413 0.718599	0.000000	0.695424
0.031834	0.104938	0.092709 0.933879	0.000000	0.357588
0.033275	0.117284	0.079491 0.970015	0.000000	-0.243045
0.023664	0.117284	0.063565 0.755963	0.000000	-0.654614
0.009326	0.117284	0.051817 0.446730	0.000000	-0.894669
-0.008706	0.117284	0.047409 0.151221	0.000000	-0.988500
-0.027369	0.117284	0.046216 -0.099338	0.000000	-0.995054
-0.045243	0.117284	0.051025 -0.558025	0.000000	-0.829824
-0.056490	0.117284	0.065831 -0.955596	0.000000	-0.294680
-0.055511	0.117284	0.084880 -0.993496	0.000000	0.113865
-0.052255	0.117284	0.103096 -0.866032	0.000000	0.499988
-0.037714	0.117284	0.115356 -0.577527	0.000000	0.816372
-0.021766	0.117284	0.124720 -0.241141	0.000000	0.970490
-0.003260	0.117284	0.123908 0.248724	0.000000	0.968574
0.013378	0.117284	0.115688 0.548340	0.000000	0.836255
0.027534	0.117284	0.103719 0.836016	0.000000	0.548705
0.032950	0.117284	0.085747 0.985188	0.000000	0.171475
0.036048	0.129630	0.085037 0.996480	0.000000	-0.083833
0.029530	0.129630	0.067737 0.833893	0.000000	-0.551925
0.016131	0.129630	0.054956 0.535824	0.000000	-0.844330
-0.001183	0.129630	0.048257 0.237337	0.000000	-0.971427
-0.019650	0.129630	0.046216 0.019782	0.000000	-0.999804
-0.038111	0.129630	0.047520 -0.377903	0.000000	-0.925845
-0.052344	0.129630	0.059619 -0.842963	0.000000	-0.537972
-0.057308	0.129630	0.077568 -0.999567	0.000000	-0.029431
-0.053389	0.129630	0.095870 -0.927027	0.000000	0.374994
-0.043567	0.129630	0.111612 -0.721847	0.000000	0.692053
-0.028292	0.129630	0.122062 -0.380330	0.000000	0.924851
-0.009936	0.129630	0.125408 0.069895	0.000000	0.997554
0.007625	0.129630	0.119584 0.441774	0.000000	0.897126
0.022993	0.129630	0.109185 0.687649	0.000000	0.726043
